X;Y;Z;R;G;B;viz100;viz50;viz100trees;treedist;t
34.446;13.5;-95.34;0.498;0.012;0.659;1002;624;1002;85.827;0
31.57;13.5;-95.161;0.498;0.012;0.659;967;622;967;86.124;0
28.694;13.5;-94.983;0.494;0.012;0.659;921;622;921;86.517;0
25.818;13.5;-94.804;0.486;0.012;0.655;884;619;884;87.003;0
22.942;13.5;-94.625;0.478;0.012;0.655;844;614;844;86.917;0
20.066;13.5;-94.447;0.463;0.012;0.647;803;605;803;86.44;0
17.19;13.5;-94.268;0.447;0.016;0.643;764;593;764;86.057;0
14.314;13.5;-94.089;0.435;0.016;0.643;742;569;742;85.769;0
11.438;13.5;-93.911;0.435;0.016;0.643;743;545;743;85.578;0
8.562;13.5;-93.732;0.431;0.016;0.639;731;521;731;85.483;0
5.686;13.5;-93.553;0.427;0.016;0.639;725;497;725;85.485;0
2.81;13.5;-93.375;0.42;0.016;0.635;713;473;713;85.584;0
-0.066;13.5;-93.196;0.416;0.016;0.635;703;444;703;85.78;0
-1.206;13.5;-93.982;0.416;0.016;0.635;702;435;702;85.029;0
-1.659;13.5;-96.559;0.416;0.016;0.635;703;438;703;82.474;0
-2.111;13.5;-99.136;0.4;0.016;0.631;675;422;675;79.923;0
-2.563;13.5;-101.713;0.396;0.016;0.631;671;421;671;77.376;0
-3.016;13.5;-104.29;0.396;0.016;0.631;669;416;669;74.835;0
-3.468;13.5;-106.867;0.392;0.016;0.627;664;410;664;72.298;0
-2.68;13.5;-107.662;0.396;0.016;0.627;667;414;667;71.452;0
0.272;13.5;-107.845;0.404;0.016;0.631;681;443;681;71.141;0
3.224;13.5;-108.028;0.412;0.016;0.635;693;468;693;70.952;0
6.176;13.5;-108.212;0.416;0.016;0.635;702;491;702;70.886;0
9.128;13.5;-108.395;0.42;0.016;0.635;707;513;707;70.943;0
12.08;13.5;-108.579;0.42;0.016;0.635;712;538;712;71.123;0
15.032;13.5;-108.762;0.427;0.016;0.639;721;565;721;71.425;0
17.984;13.5;-108.945;0.443;0.016;0.643;753;581;753;71.848;0
20.936;13.5;-109.129;0.459;0.012;0.647;791;592;791;72.389;0
23.887;13.5;-109.312;0.471;0.012;0.651;826;599;826;72.772;0
26.839;13.5;-109.495;0.482;0.012;0.655;866;603;866;72.31;0
29.791;13.5;-109.679;0.494;0.012;0.659;909;605;909;71.79;0
32.743;13.5;-109.862;0.498;0.012;0.659;949;607;949;71.388;0
35.695;13.5;-110.046;0.498;0.012;0.659;978;604;978;71.108;0
38.647;13.5;-110.229;0.502;0.016;0.659;1037;616;1037;70.95;0
41.599;13.5;-110.412;0.506;0.02;0.655;1070;622;1070;70.915;0
44.551;13.5;-110.596;0.514;0.024;0.651;1111;633;1111;71.003;0
47.503;13.5;-110.779;0.522;0.031;0.643;1152;636;1152;71.214;0
50.455;13.5;-110.963;0.522;0.031;0.643;1151;640;1151;71.547;0
53.407;13.5;-111.146;0.525;0.035;0.643;1169;646;1169;72;0
56.358;13.5;-111.329;0.533;0.043;0.635;1197;653;1197;72.564;0
59.31;13.5;-111.513;0.545;0.055;0.627;1231;654;1231;72.903;0
62.262;13.5;-111.696;0.675;0.165;0.549;1512;717;1512;72.585;0
64.126;13.5;-113.615;0.718;0.204;0.522;1610;706;1574;70.643;0
63.964;13.5;-116.21;0.702;0.192;0.529;1577;671;1537;68.048;0
63.803;13.5;-118.805;0.694;0.184;0.537;1559;645;1517;65.453;0
63.642;13.5;-121.4;0.694;0.184;0.537;1554;636;1512;62.859;0
63.481;13.5;-123.995;0.694;0.184;0.537;1558;639;1517;60.266;0
63.32;13.5;-126.59;0.698;0.188;0.533;1568;645;1530;57.673;0
61.258;13.5;-128.266;0.58;0.086;0.608;1319;599;1295;56.065;0
58.356;13.5;-128.085;0.502;0.016;0.655;1055;574;1047;56.466;0
55.455;13.5;-127.905;0.498;0.012;0.659;993;569;992;56.097;0
52.553;13.5;-127.725;0.498;0.012;0.659;967;580;967;55.771;0
49.651;13.5;-127.545;0.498;0.012;0.659;960;598;960;55.192;0
46.75;13.5;-127.364;0.498;0.012;0.659;948;603;948;54.754;0
43.848;13.5;-127.184;0.498;0.012;0.659;942;577;942;54.467;0
40.946;13.5;-127.004;0.494;0.012;0.659;913;612;913;54.335;0
38.045;13.5;-126.824;0.49;0.012;0.659;901;643;901;54.359;0
35.143;13.5;-126.643;0.49;0.012;0.655;886;646;886;54.538;0
32.241;13.5;-126.463;0.486;0.012;0.655;873;652;873;54.87;0
29.34;13.5;-126.283;0.482;0.012;0.655;856;652;856;55.351;0
26.438;13.5;-126.103;0.475;0.012;0.651;832;643;832;55.979;0
23.536;13.5;-125.922;0.467;0.012;0.651;816;630;816;56.443;0
20.634;13.5;-125.742;0.459;0.012;0.647;795;618;795;56.025;0
17.733;13.5;-125.562;0.451;0.016;0.647;772;605;772;55.702;0
14.831;13.5;-125.381;0.443;0.016;0.643;754;592;754;55.151;0
11.929;13.5;-125.201;0.435;0.016;0.639;741;576;741;54.72;0
9.028;13.5;-125.021;0.435;0.016;0.639;740;554;740;54.441;0
6.126;13.5;-124.841;0.435;0.016;0.639;739;533;739;54.317;0
3.224;13.5;-124.66;0.431;0.016;0.639;733;511;733;54.346;0
0.323;13.5;-124.48;0.427;0.016;0.639;727;489;727;54.529;0
-2.579;13.5;-124.3;0.424;0.016;0.639;717;467;717;54.865;0
-5.481;13.5;-124.12;0.404;0.016;0.631;679;445;679;55.35;0
-6.634;13.5;-124.905;0.392;0.016;0.627;664;438;664;54.737;0
-7.087;13.5;-127.482;0.396;0.016;0.627;668;438;668;52.225;0
-7.539;13.5;-130.059;0.376;0.016;0.624;640;421;640;49.646;0
-7.991;13.5;-132.636;0.376;0.016;0.624;638;418;638;47.07;0
-8.444;13.5;-135.213;0.373;0.016;0.624;631;406;631;44.499;0
-8.896;13.5;-137.79;0.369;0.016;0.624;628;405;628;41.934;0
-8.103;13.5;-138.585;0.376;0.016;0.624;636;413;636;41.129;0
-5.142;13.5;-138.769;0.408;0.016;0.631;686;434;686;40.822;0
-2.181;13.5;-138.953;0.42;0.016;0.635;706;455;706;40.247;0
0.78;13.5;-139.137;0.424;0.016;0.635;715;476;715;39.883;0
3.742;13.5;-139.321;0.427;0.016;0.639;722;497;722;39.736;0
6.703;13.5;-139.505;0.427;0.016;0.639;724;518;724;39.808;0
9.664;13.5;-139.689;0.431;0.016;0.639;729;538;729;40.099;0
12.625;13.5;-139.873;0.431;0.016;0.639;734;558;734;40.603;0
15.586;13.5;-140.057;0.435;0.016;0.643;742;577;742;41.06;0
18.547;13.5;-140.24;0.447;0.016;0.643;761;591;761;41.408;0
21.508;13.5;-140.424;0.455;0.012;0.647;784;605;784;41.964;0
24.47;13.5;-140.608;0.467;0.012;0.651;809;618;809;41.749;0
27.431;13.5;-140.792;0.478;0.012;0.655;848;623;848;41.317;0
30.392;13.5;-140.976;0.49;0.012;0.655;889;629;889;40.664;0
33.353;13.5;-141.16;0.494;0.012;0.659;916;621;916;40.144;0
36.314;13.5;-141.344;0.498;0.012;0.659;963;616;963;39.837;0
39.275;13.5;-141.528;0.498;0.012;0.659;998;607;998;39.748;0
42.236;13.5;-141.712;0.502;0.016;0.655;1048;558;1048;39.878;0
45.198;13.5;-141.896;0.51;0.024;0.651;1104;588;1104;40.226;0
48.159;13.5;-142.08;0.518;0.031;0.647;1144;583;1144;40.784;0
51.12;13.5;-142.264;0.529;0.039;0.639;1186;588;1186;41.189;0
54.081;13.5;-142.448;0.545;0.051;0.631;1224;598;1224;41.597;0
57.042;13.5;-142.632;0.557;0.067;0.62;1263;626;1263;42.135;0
60.003;13.5;-142.816;0.576;0.082;0.608;1309;673;1309;41.646;0
62.964;13.5;-143;0.616;0.114;0.588;1391;737;1391;41.275;0
65.925;13.5;-143.184;0.62;0.122;0.584;1404;773;1404;41.115;0
68.887;13.5;-143.368;0.62;0.122;0.58;1405;785;1405;41.17;0
71.848;13.5;-143.552;0.678;0.169;0.545;1522;830;1522;41.437;0
73.716;13.5;-145.471;0.8;0.282;0.471;2007;714;1790;39.96;0
73.555;13.5;-148.066;0.796;0.275;0.475;1882;657;1654;37.406;0
73.393;13.5;-150.661;0.796;0.275;0.475;1881;652;1640;34.858;0
73.232;13.5;-153.256;0.796;0.275;0.475;1881;646;1627;32.318;0
73.071;13.5;-155.851;0.8;0.278;0.471;1913;640;1649;29.789;0
72.91;13.5;-158.446;0.804;0.286;0.463;2059;681;1777;27.274;0
129.229;13.5;-228.751;0.929;0.518;0.302;2619;662;2135;26.244;0
132.081;13.5;-228.929;0.933;0.522;0.298;2626;646;2145;25.988;0
134.933;13.5;-229.107;0.929;0.518;0.302;2612;631;2146;25.283;0
137.784;13.5;-229.286;0.929;0.514;0.302;2607;625;2153;24.889;0
140.636;13.5;-229.464;0.925;0.51;0.306;2598;620;2137;24.819;0
143.487;13.5;-229.642;0.922;0.502;0.31;2584;617;2121;25.077;0
146.339;13.5;-229.82;0.922;0.506;0.31;2587;619;2137;25.652;0
149.19;13.5;-229.999;0.922;0.506;0.31;2586;625;2132;26.334;0
152.042;13.5;-230.177;0.922;0.502;0.31;2583;632;2114;25.905;0
154.894;13.5;-230.355;0.922;0.506;0.31;2587;642;2106;25.771;0
157.745;13.5;-230.533;0.922;0.502;0.314;2580;654;2111;25.952;0
160.597;13.5;-230.712;0.922;0.502;0.31;2582;671;2130;26.332;0
163.448;13.5;-230.89;0.922;0.502;0.314;2577;682;2114;26.37;0
166.3;13.5;-231.068;0.929;0.518;0.302;2618;725;2190;26.011;0
168.106;13.5;-233.085;0.737;0.224;0.51;1657;557;1401;27.835;0
167.932;13.5;-235.879;0.627;0.125;0.576;1421;485;1234;30.623;0
167.757;13.5;-238.674;0.6;0.102;0.596;1363;477;1187;33.414;0
167.582;13.5;-241.468;0.576;0.078;0.612;1304;447;1152;36.206;0
167.408;13.5;-244.263;0.592;0.094;0.6;1343;457;1204;38.999;0
165.364;13.5;-246.039;0.49;0.012;0.655;895;458;895;40.937;0
162.513;13.5;-245.861;0.478;0.012;0.655;843;415;843;41.166;0
159.661;13.5;-245.682;0.471;0.012;0.651;821;400;821;41.16;0
156.809;13.5;-245.504;0.467;0.012;0.651;807;381;807;40.846;0
153.958;13.5;-245.326;0.463;0.012;0.647;803;375;803;40.731;0
151.106;13.5;-245.148;0.463;0.012;0.647;800;367;800;40.817;0
148.255;13.5;-244.969;0.463;0.012;0.647;798;361;798;40.897;0
145.403;13.5;-244.791;0.459;0.012;0.647;795;355;795;40.337;0
142.552;13.5;-244.613;0.459;0.012;0.647;791;350;791;39.973;0
139.7;13.5;-244.435;0.459;0.012;0.647;787;355;787;39.812;0
136.848;13.5;-244.257;0.455;0.012;0.647;782;360;782;39.856;0
133.997;13.5;-244.078;0.455;0.012;0.647;777;365;777;40.103;0
131.145;13.5;-243.9;0.451;0.016;0.647;774;374;774;40.551;0
128.294;13.5;-243.722;0.451;0.016;0.643;769;392;769;41.172;0
126.487;13.5;-241.705;0.498;0.012;0.659;1008;380;873;39.314;0
126.662;13.5;-238.911;0.506;0.02;0.655;1069;379;901;36.571;0
126.837;13.5;-236.116;0.522;0.031;0.643;1153;395;953;33.828;0
127.011;13.5;-233.322;0.573;0.078;0.612;1303;429;1044;31.042;0
127.186;13.5;-230.527;0.69;0.18;0.537;1551;495;1212;28.259;0
76.556;13.5;-225.433;0.871;0.408;0.38;2383;620;1955;25.259;0
79.467;13.5;-225.615;0.851;0.373;0.404;2309;595;1858;25.819;0
82.378;13.5;-225.797;0.843;0.361;0.412;2283;593;1844;25.825;0
85.289;13.5;-225.979;0.843;0.357;0.416;2275;600;1813;25.62;0
88.2;13.5;-226.161;0.843;0.357;0.412;2282;600;1825;25.746;0
91.111;13.5;-226.343;0.847;0.365;0.408;2299;606;1833;26.198;0
94.022;13.5;-226.525;0.851;0.373;0.404;2314;611;1862;25.8;0
96.933;13.5;-226.707;0.859;0.384;0.396;2337;616;1882;25.629;0
99.844;13.5;-226.889;0.859;0.384;0.396;2341;623;1887;25.789;0
102.755;13.5;-227.071;0.867;0.4;0.384;2368;629;1910;25.57;0
105.666;13.5;-227.253;0.878;0.427;0.365;2422;644;1952;25.326;0
108.577;13.5;-227.435;0.894;0.447;0.349;2468;660;1980;25.416;0
110.413;13.5;-229.453;0.69;0.18;0.541;1546;488;1246;27.539;0
110.238;13.5;-232.248;0.576;0.078;0.612;1306;421;1072;30.308;0
110.063;13.5;-235.042;0.525;0.035;0.643;1161;390;984;33.083;0
109.889;13.5;-237.837;0.506;0.02;0.655;1085;381;933;35.861;0
109.714;13.5;-240.631;0.502;0.016;0.655;1051;382;926;38.642;0
107.641;13.5;-242.406;0.388;0.016;0.627;659;371;659;40.375;0
104.73;13.5;-242.224;0.365;0.016;0.62;618;348;618;40.318;0
101.819;13.5;-242.042;0.345;0.02;0.616;590;335;590;40.472;0
98.908;13.5;-241.86;0.329;0.02;0.612;568;327;568;40.73;0
95.997;13.5;-241.678;0.314;0.02;0.608;548;318;548;40.629;0
93.086;13.5;-241.496;0.302;0.02;0.604;530;309;530;40.737;0
90.175;13.5;-241.314;0.294;0.02;0.6;517;299;517;40.986;0
87.264;13.5;-241.132;0.29;0.02;0.6;516;288;516;40.699;0
84.353;13.5;-240.95;0.286;0.02;0.6;510;279;510;40.619;0
81.442;13.5;-240.768;0.286;0.02;0.6;509;273;509;40.749;0
78.531;13.5;-240.586;0.302;0.02;0.604;528;267;528;40.48;0
75.62;13.5;-240.404;0.38;0.016;0.624;643;292;643;40.125;0
73.784;13.5;-238.386;0.561;0.067;0.62;1268;350;1109;38.11;0
73.959;13.5;-235.591;0.569;0.075;0.616;1288;367;1120;35.319;0
74.133;13.5;-232.797;0.584;0.086;0.604;1326;390;1151;32.529;0
74.308;13.5;-230.002;0.608;0.11;0.592;1377;412;1187;29.741;0
74.483;13.5;-227.208;0.714;0.204;0.522;1605;474;1343;26.955;0
195.425;13.5;-166.81;0.82;0.31;0.447;2157;714;1860;25.454;0
195.596;13.5;-164.065;0.8;0.278;0.471;1978;645;1733;28.194;0
195.766;13.5;-161.321;0.8;0.278;0.471;1947;640;1711;30.858;0
195.937;13.5;-158.576;0.8;0.278;0.471;1950;642;1718;33.505;0
196.107;13.5;-155.831;0.8;0.278;0.471;1931;639;1713;36.168;0
196.278;13.5;-153.087;0.8;0.278;0.471;1947;668;1741;38.842;0
198.324;13.5;-151.335;0.643;0.137;0.569;1448;723;1448;40.302;0
201.185;13.5;-151.513;0.608;0.11;0.592;1377;732;1377;39.92;0
204.046;13.5;-151.691;0.612;0.11;0.588;1384;744;1384;39.741;0
206.908;13.5;-151.868;0.624;0.122;0.58;1410;756;1410;39.765;0
209.769;13.5;-152.046;0.643;0.141;0.569;1452;756;1452;39.995;0
212.63;13.5;-152.224;0.647;0.141;0.569;1456;750;1456;40.425;0
215.492;13.5;-152.402;0.659;0.153;0.557;1484;742;1484;40.946;0
218.353;13.5;-152.579;0.675;0.169;0.549;1516;722;1516;41.251;0
221.214;13.5;-152.757;0.686;0.18;0.541;1543;710;1543;41.712;0
224.076;13.5;-152.935;0.702;0.192;0.533;1573;699;1573;41.991;0
226.937;13.5;-153.113;0.718;0.204;0.522;1610;686;1610;41.485;0
229.798;13.5;-153.29;0.725;0.216;0.518;1632;666;1632;40.994;0
232.66;13.5;-153.468;0.733;0.22;0.514;1648;634;1648;40.388;0
235.521;13.5;-153.646;0.737;0.224;0.51;1656;632;1656;39.978;0
238.382;13.5;-153.824;0.745;0.227;0.506;1675;632;1675;39.768;0
241.244;13.5;-154.002;0.745;0.231;0.506;1680;631;1680;39.763;0
244.105;13.5;-154.179;0.757;0.239;0.498;1709;636;1709;39.963;0
246.966;13.5;-154.357;0.788;0.271;0.478;1835;660;1835;40.365;0
248.78;13.5;-156.348;0.808;0.29;0.463;2082;552;1983;38.905;0
248.609;13.5;-159.093;0.804;0.286;0.467;2049;519;1960;36.2;0
248.439;13.5;-161.838;0.804;0.29;0.463;2062;522;1966;33.503;0
248.268;13.5;-164.582;0.804;0.286;0.467;2052;530;1948;30.815;0
248.098;13.5;-167.327;0.804;0.286;0.467;2044;540;1925;28.104;0
247.927;13.5;-170.072;0.824;0.322;0.439;2187;583;2013;25.359;0
245.881;13.5;-171.823;0.886;0.435;0.361;2442;749;2127;23.2;0
243.02;13.5;-171.646;0.859;0.388;0.392;2343;728;2028;22.68;0
240.158;13.5;-171.468;0.859;0.384;0.396;2338;723;1991;22.315;0
237.297;13.5;-171.29;0.863;0.392;0.388;2356;720;2012;22.313;0
234.436;13.5;-171.112;0.867;0.404;0.38;2378;716;2028;22.672;0
231.574;13.5;-170.935;0.867;0.4;0.384;2369;715;2033;23.377;0
228.713;13.5;-170.757;0.867;0.4;0.384;2369;715;2012;23.772;0
225.852;13.5;-170.579;0.867;0.4;0.384;2372;716;2001;24.309;0
222.99;13.5;-170.401;0.871;0.404;0.38;2382;715;2009;24.933;0
220.129;13.5;-170.224;0.871;0.408;0.38;2385;715;2004;24.553;0
217.268;13.5;-170.046;0.867;0.404;0.38;2378;713;1982;24.003;0
214.407;13.5;-169.868;0.867;0.4;0.384;2367;715;1973;23.544;0
211.545;13.5;-169.69;0.859;0.388;0.392;2343;720;1938;23.254;0
208.684;13.5;-169.513;0.855;0.38;0.396;2333;719;1932;22.74;0
205.823;13.5;-169.335;0.859;0.384;0.396;2335;716;1934;22.332;0
202.961;13.5;-169.157;0.863;0.392;0.392;2353;724;1941;22.276;0
200.1;13.5;-168.979;0.867;0.4;0.384;2369;731;1963;22.583;0
197.239;13.5;-168.801;0.925;0.51;0.306;2598;754;2182;23.241;0
174.517;13.5;-119.672;0.42;0.016;0.635;706;418;706;72.581;0
171.532;13.5;-119.486;0.424;0.016;0.635;715;447;715;73.023;0
168.547;13.5;-119.301;0.431;0.016;0.639;730;480;730;73.424;0
165.562;13.5;-119.115;0.443;0.016;0.643;752;511;752;73.359;0
162.577;13.5;-118.93;0.467;0.012;0.651;807;544;807;73.294;0
159.592;13.5;-118.745;0.478;0.012;0.655;843;582;843;73.167;0
156.607;13.5;-118.559;0.482;0.012;0.655;861;612;861;73.101;0
153.622;13.5;-118.374;0.486;0.012;0.655;876;628;876;73.041;0
150.637;13.5;-118.188;0.49;0.012;0.655;893;643;893;72.821;0
147.652;13.5;-118.003;0.494;0.012;0.659;912;658;912;72.723;0
144.667;13.5;-117.817;0.494;0.012;0.659;927;677;927;72.749;0
141.682;13.5;-117.632;0.498;0.012;0.659;962;694;962;72.897;0
138.697;13.5;-117.447;0.498;0.012;0.659;1013;701;1013;73.046;0
135.712;13.5;-117.261;0.506;0.02;0.655;1069;706;1069;72.885;0
132.727;13.5;-117.076;0.514;0.024;0.651;1111;700;1111;72.847;0
129.742;13.5;-116.89;0.518;0.031;0.647;1144;686;1144;72.932;0
126.757;13.5;-116.705;0.525;0.035;0.643;1168;649;1168;73.14;0
123.772;13.5;-116.519;0.533;0.043;0.639;1190;611;1190;73.457;0
120.787;13.5;-116.334;0.541;0.047;0.631;1212;604;1212;73.424;0
117.802;13.5;-116.148;0.545;0.055;0.627;1232;592;1232;73.513;0
114.817;13.5;-115.963;0.553;0.063;0.624;1253;593;1253;73.603;0
111.832;13.5;-115.778;0.561;0.067;0.62;1270;643;1270;73.456;0
108.847;13.5;-115.592;0.565;0.071;0.62;1277;674;1277;73.369;0
105.862;13.5;-115.407;0.565;0.071;0.616;1282;691;1282;73.399;0
102.877;13.5;-115.221;0.58;0.082;0.608;1315;709;1306;73.481;0
99.892;13.5;-115.036;0.62;0.118;0.584;1403;749;1385;73.475;0
96.907;13.5;-114.85;0.757;0.239;0.498;1708;799;1680;73.435;0
95.027;13.5;-112.93;0.773;0.251;0.49;1754;813;1713;75.072;0
95.188;13.5;-110.335;0.765;0.247;0.494;1731;795;1691;77.666;0
95.35;13.5;-107.74;0.761;0.243;0.494;1717;774;1679;80.26;0
95.511;13.5;-105.145;0.761;0.243;0.494;1722;764;1687;82.854;0
95.672;13.5;-102.55;0.769;0.251;0.49;1745;758;1715;85.449;0
95.833;13.5;-99.955;0.78;0.259;0.482;1784;773;1764;88.043;0
97.936;13.5;-98.282;0.729;0.216;0.514;1639;774;1639;89.981;0
100.921;13.5;-98.468;0.627;0.125;0.58;1416;760;1416;90.071;0
103.906;13.5;-98.653;0.62;0.118;0.584;1402;760;1402;90.076;0
106.891;13.5;-98.839;0.616;0.114;0.584;1394;756;1394;89.989;0
109.876;13.5;-99.024;0.62;0.118;0.584;1400;759;1400;89.964;0
112.861;13.5;-99.209;0.616;0.118;0.584;1396;742;1396;90.039;0
115.846;13.5;-99.395;0.6;0.102;0.596;1358;675;1358;90.171;0
118.831;13.5;-99.58;0.565;0.071;0.616;1284;640;1284;90.093;0
121.816;13.5;-99.766;0.545;0.051;0.631;1225;631;1225;90.02;0
124.801;13.5;-99.951;0.525;0.039;0.639;1172;621;1172;89.951;0
127.786;13.5;-100.137;0.514;0.027;0.647;1125;643;1125;89.683;0
130.771;13.5;-100.322;0.506;0.016;0.655;1068;656;1068;89.514;0
133.756;13.5;-100.508;0.498;0.012;0.659;1018;640;1018;89.445;0
136.741;13.5;-100.693;0.498;0.012;0.659;983;633;983;89.476;0
139.726;13.5;-100.878;0.498;0.012;0.659;937;621;937;89.606;0
142.711;13.5;-101.064;0.49;0.012;0.655;899;610;899;89.459;0
145.696;13.5;-101.249;0.482;0.012;0.655;863;600;863;89.338;0
148.681;13.5;-101.435;0.475;0.012;0.651;839;578;839;89.318;0
151.666;13.5;-101.62;0.471;0.012;0.651;824;569;824;89.397;0
154.651;13.5;-101.806;0.463;0.012;0.647;802;560;802;89.577;0
157.636;13.5;-101.991;0.459;0.012;0.647;786;550;786;89.688;0
160.621;13.5;-102.177;0.447;0.016;0.643;760;540;760;89.743;0
163.606;13.5;-102.362;0.431;0.016;0.639;733;524;733;89.86;0
166.591;13.5;-102.547;0.396;0.016;0.631;671;503;671;89.959;0
169.576;13.5;-102.733;0.38;0.016;0.624;642;482;642;89.866;0
172.561;13.5;-102.918;0.369;0.016;0.624;626;455;626;89.407;0
175.546;13.5;-103.104;0.353;0.02;0.616;603;428;603;89.046;0
176.59;13.5;-102.367;0.353;0.02;0.616;602;420;602;89.743;0
176.751;13.5;-99.772;0.337;0.02;0.612;580;411;580;92.329;0
176.912;13.5;-97.177;0.337;0.02;0.612;580;412;580;94.916;0
177.073;13.5;-94.582;0.337;0.02;0.612;580;412;580;97.504;0
177.234;13.5;-91.987;0.337;0.02;0.612;577;408;577;100.092;0
177.396;13.5;-89.392;0.337;0.02;0.612;578;407;578;102.681;0
176.471;13.5;-88.533;0.337;0.02;0.612;579;409;579;103.561;0
173.524;13.5;-88.35;0.349;0.02;0.616;598;435;598;103.866;0
170.578;13.5;-88.167;0.361;0.02;0.62;613;463;613;104.255;0
167.631;13.5;-87.984;0.376;0.016;0.624;640;483;640;104.559;0
164.684;13.5;-87.801;0.416;0.016;0.635;700;508;700;104.447;0
161.737;13.5;-87.618;0.431;0.016;0.639;728;516;728;104.334;0
158.791;13.5;-87.435;0.443;0.016;0.643;752;525;752;104.281;0
155.844;13.5;-87.252;0.451;0.016;0.643;769;534;769;104.156;0
152.897;13.5;-87.069;0.459;0.012;0.647;792;542;792;103.996;0
149.951;13.5;-86.885;0.463;0.012;0.651;805;551;805;103.918;0
147.004;13.5;-86.702;0.471;0.012;0.651;818;565;818;103.925;0
144.057;13.5;-86.519;0.475;0.012;0.651;834;584;834;104.015;0
141.111;13.5;-86.336;0.482;0.012;0.655;859;591;859;104.189;0
138.164;13.5;-86.153;0.49;0.012;0.655;896;604;896;104.083;0
135.217;13.5;-85.97;0.494;0.012;0.659;924;607;924;104.042;0
132.27;13.5;-85.787;0.498;0.012;0.659;954;603;954;104.084;0
129.324;13.5;-85.604;0.498;0.012;0.659;991;592;991;104.21;0
126.377;13.5;-85.421;0.502;0.016;0.659;1030;549;1030;104.419;0
123.43;13.5;-85.238;0.506;0.02;0.655;1074;541;1074;104.616;0
120.484;13.5;-85.055;0.518;0.027;0.647;1133;534;1133;104.657;0
117.537;13.5;-84.872;0.573;0.078;0.612;1298;564;1298;104.781;0
115.676;13.5;-82.953;0.569;0.075;0.616;1288;517;1288;106.497;0
115.837;13.5;-80.358;0.569;0.075;0.616;1287;513;1287;109.095;0
115.999;13.5;-77.763;0.584;0.09;0.604;1327;516;1327;111.693;0
116.16;13.5;-75.168;0.573;0.078;0.612;1299;508;1299;114.29;0
116.321;13.5;-72.573;0.573;0.078;0.612;1301;500;1301;116.888;0
116.482;13.5;-69.978;0.58;0.086;0.608;1318;512;1318;119.485;0
118.59;13.5;-68.305;0.506;0.02;0.655;1086;538;1086;121.355;0
121.584;13.5;-68.491;0.49;0.012;0.655;887;527;887;121.248;0
124.579;13.5;-68.677;0.486;0.012;0.655;872;531;872;121.207;0
127.573;13.5;-68.863;0.482;0.012;0.655;867;530;867;120.954;0
130.567;13.5;-69.049;0.482;0.012;0.655;857;532;857;120.775;0
133.561;13.5;-69.235;0.478;0.012;0.655;849;536;849;120.671;0
136.555;13.5;-69.421;0.478;0.012;0.651;841;540;841;120.641;0
139.55;13.5;-69.607;0.475;0.012;0.651;828;534;828;120.685;0
142.544;13.5;-69.793;0.471;0.012;0.651;821;523;821;120.724;0
145.538;13.5;-69.979;0.467;0.012;0.651;816;503;816;120.582;0
148.532;13.5;-70.165;0.467;0.012;0.651;809;496;809;120.514;0
151.527;13.5;-70.351;0.463;0.012;0.647;802;490;802;120.522;0
154.521;13.5;-70.537;0.463;0.012;0.647;797;484;797;120.604;0
157.515;13.5;-70.723;0.459;0.012;0.647;790;478;790;120.76;0
160.509;13.5;-70.909;0.455;0.012;0.647;779;473;779;120.878;0
163.503;13.5;-71.095;0.451;0.016;0.647;772;467;772;120.943;0
166.498;13.5;-71.281;0.447;0.016;0.643;766;460;766;121.06;0
169.492;13.5;-71.467;0.443;0.016;0.643;759;448;759;120.975;0
172.486;13.5;-71.653;0.443;0.016;0.643;753;435;753;120.582;0
175.48;13.5;-71.839;0.439;0.016;0.643;750;421;750;120.264;0
178.475;13.5;-72.025;0.439;0.016;0.643;747;409;747;120.02;0
181.469;13.5;-72.212;0.443;0.016;0.643;754;399;754;119.85;0
184.463;13.5;-72.398;0.482;0.012;0.655;862;414;862;119.755;0
186.339;13.5;-74.462;0.537;0.047;0.635;1209;476;1209;117.791;0
186.159;13.5;-77.346;0.541;0.051;0.631;1221;489;1221;114.904;0
185.98;13.5;-80.229;0.545;0.055;0.627;1230;507;1230;112.017;0
185.801;13.5;-83.112;0.549;0.055;0.627;1236;523;1236;109.13;0
185.622;13.5;-85.996;0.549;0.055;0.627;1237;540;1237;106.244;0
185.443;13.5;-88.879;0.549;0.055;0.627;1235;552;1235;103.357;0
185.264;13.5;-91.762;0.549;0.059;0.627;1242;570;1242;100.471;0
185.085;13.5;-94.646;0.545;0.055;0.627;1229;586;1229;97.585;0
184.906;13.5;-97.529;0.549;0.059;0.627;1244;604;1244;94.699;0
184.726;13.5;-100.412;0.565;0.071;0.616;1281;621;1281;91.813;0
184.547;13.5;-103.296;0.576;0.082;0.608;1312;622;1310;88.927;0
184.368;13.5;-106.179;0.596;0.098;0.596;1353;648;1347;86.042;0
184.189;13.5;-109.062;0.616;0.114;0.588;1391;671;1384;83.157;0
184.01;13.5;-111.946;0.635;0.133;0.573;1432;700;1424;80.272;0
183.831;13.5;-114.829;0.651;0.145;0.565;1464;717;1454;77.388;0
183.652;13.5;-117.712;0.659;0.153;0.561;1480;734;1469;74.503;0
183.473;13.5;-120.596;0.663;0.157;0.557;1494;749;1485;71.62;0
183.293;13.5;-123.479;0.667;0.161;0.553;1502;748;1491;68.736;0
183.114;13.5;-126.362;0.671;0.165;0.549;1509;739;1498;65.853;0
182.935;13.5;-129.246;0.675;0.169;0.549;1514;725;1502;62.971;0
182.756;13.5;-132.129;0.663;0.157;0.557;1495;715;1482;60.089;0
182.577;13.5;-135.012;0.682;0.173;0.545;1529;704;1501;57.208;0
182.398;13.5;-137.896;0.71;0.2;0.525;1594;694;1549;54.328;0
182.219;13.5;-140.779;0.741;0.227;0.506;1665;687;1599;51.449;0
182.04;13.5;-143.662;0.765;0.247;0.494;1734;681;1650;48.571;0
181.86;13.5;-146.545;0.792;0.271;0.475;1841;677;1729;45.694;0
181.681;13.5;-149.429;0.804;0.286;0.463;2054;707;1880;42.811;0
179.602;13.5;-151.248;0.855;0.38;0.4;2330;654;2046;40.936;0
176.683;13.5;-151.066;0.843;0.361;0.412;2286;663;1998;41.209;0
173.763;13.5;-150.885;0.851;0.373;0.404;2316;687;2034;41.678;0
170.844;13.5;-150.704;0.878;0.42;0.373;2409;709;2092;42.292;0
167.924;13.5;-150.522;0.886;0.435;0.361;2440;712;2112;42.357;0
165.005;13.5;-150.341;0.886;0.435;0.361;2441;709;2125;42.186;0
162.086;13.5;-150.16;0.89;0.443;0.357;2454;703;2145;42.185;0
159.166;13.5;-149.978;0.89;0.443;0.353;2456;696;2151;42.104;0
156.247;13.5;-149.797;0.89;0.443;0.353;2458;702;2131;41.986;0
153.328;13.5;-149.616;0.882;0.431;0.361;2436;712;2098;41.97;0
150.408;13.5;-149.434;0.886;0.439;0.357;2450;720;2116;41.91;0
147.489;13.5;-149.253;0.886;0.435;0.361;2442;697;2099;41.621;0
144.569;13.5;-149.071;0.882;0.431;0.361;2436;683;2097;41.537;0
141.65;13.5;-148.89;0.878;0.427;0.365;2422;688;2072;41.659;0
138.731;13.5;-148.709;0.878;0.424;0.369;2415;689;2063;41.89;0
135.811;13.5;-148.527;0.878;0.42;0.369;2410;688;2038;41.892;0
132.892;13.5;-148.346;0.882;0.427;0.365;2429;689;2050;41.682;0
129.972;13.5;-148.165;0.882;0.431;0.361;2434;684;2050;41.678;0
127.053;13.5;-147.983;0.882;0.431;0.361;2433;687;2055;41.878;0
124.134;13.5;-147.802;0.886;0.435;0.357;2445;680;2072;42.28;0
121.214;13.5;-147.621;0.886;0.435;0.357;2445;713;2059;42.268;0
118.295;13.5;-147.439;0.882;0.431;0.361;2434;717;2052;42.252;0
115.376;13.5;-147.258;0.878;0.424;0.369;2415;715;2022;42.439;0
112.456;13.5;-147.076;0.875;0.416;0.373;2405;715;2015;42.486;0
109.537;13.5;-146.895;0.867;0.4;0.384;2371;706;2006;42.275;0
106.617;13.5;-146.714;0.859;0.388;0.392;2344;697;1988;42.181;0
103.698;13.5;-146.532;0.847;0.369;0.408;2301;682;1949;42.25;0
100.779;13.5;-146.351;0.839;0.353;0.42;2264;675;1923;42.295;0
97.859;13.5;-146.17;0.827;0.329;0.435;2211;666;1879;42.293;0
94.94;13.5;-145.988;0.855;0.384;0.396;2334;679;2008;42.259;0
93.093;13.5;-144.07;0.804;0.282;0.467;2028;727;1861;44.009;0
93.254;13.5;-141.475;0.788;0.271;0.478;1836;689;1712;46.59;0
93.415;13.5;-138.88;0.78;0.259;0.482;1783;685;1680;49.174;0
93.576;13.5;-136.285;0.769;0.251;0.49;1745;690;1656;51.759;0
93.738;13.5;-133.69;0.773;0.255;0.486;1767;719;1685;54.346;0
93.899;13.5;-131.095;0.776;0.255;0.486;1771;740;1697;56.934;0
96.002;13.5;-129.422;0.737;0.224;0.51;1661;780;1661;58.843;0
98.987;13.5;-129.608;0.624;0.122;0.58;1412;711;1412;58.88;0
101.972;13.5;-129.793;0.604;0.106;0.592;1371;669;1371;58.887;0
104.957;13.5;-129.979;0.596;0.098;0.596;1356;669;1356;58.812;0
107.942;13.5;-130.164;0.592;0.094;0.6;1345;664;1345;58.774;0
110.927;13.5;-130.349;0.584;0.086;0.604;1326;647;1326;58.871;0
113.912;13.5;-130.535;0.573;0.078;0.612;1299;608;1299;59.047;0
116.897;13.5;-130.72;0.557;0.063;0.624;1260;605;1260;58.94;0
119.882;13.5;-130.906;0.549;0.055;0.627;1235;621;1235;58.829;0
122.867;13.5;-131.091;0.537;0.047;0.635;1207;633;1207;58.871;0
125.852;13.5;-131.277;0.533;0.043;0.639;1190;673;1190;58.616;0
128.837;13.5;-131.462;0.525;0.035;0.643;1162;716;1162;58.357;0
131.822;13.5;-131.648;0.514;0.027;0.647;1122;729;1122;58.251;0
134.807;13.5;-131.833;0.506;0.02;0.655;1084;731;1084;58.298;0
137.792;13.5;-132.018;0.502;0.016;0.659;1035;732;1035;58.499;0
140.777;13.5;-132.204;0.498;0.012;0.659;984;725;984;58.348;0
143.762;13.5;-132.389;0.498;0.012;0.659;947;706;947;58.162;0
146.747;13.5;-132.575;0.494;0.012;0.659;928;686;928;58.131;0
149.732;13.5;-132.76;0.494;0.012;0.659;911;672;911;58.253;0
152.717;13.5;-132.946;0.49;0.012;0.659;901;657;901;58.528;0
155.702;13.5;-133.131;0.49;0.012;0.655;887;638;887;58.519;0
158.687;13.5;-133.316;0.482;0.012;0.655;867;607;867;58.591;0
161.672;13.5;-133.502;0.475;0.012;0.651;832;563;832;58.74;0
164.657;13.5;-133.687;0.455;0.012;0.647;780;533;780;58.76;0
167.642;13.5;-133.873;0.443;0.016;0.643;757;501;757;58.84;0
170.627;13.5;-134.058;0.439;0.016;0.643;745;467;745;58.715;0
173.612;13.5;-134.244;0.435;0.016;0.639;736;436;736;58.163;0
174.655;13.5;-133.507;0.431;0.016;0.639;733;433;733;58.802;0
174.816;13.5;-130.912;0.42;0.016;0.635;707;418;707;61.371;0
174.977;13.5;-128.317;0.416;0.016;0.635;705;420;705;63.942;0
175.139;13.5;-125.722;0.42;0.016;0.635;708;420;708;66.515;0
175.3;13.5;-123.127;0.42;0.016;0.635;706;416;706;69.09;0
175.461;13.5;-120.532;0.42;0.016;0.635;706;414;706;71.667;0
263.585;13.5;-236.984;0.843;0.357;0.416;2279;800;2042;26.449;0
266.313;13.5;-237.155;0.835;0.341;0.427;2241;737;2016;26.198;0
269.041;13.5;-237.326;0.835;0.345;0.424;2253;722;2031;25.529;0
271.769;13.5;-237.497;0.839;0.349;0.424;2255;713;2023;25.141;0
274.496;13.5;-237.668;0.835;0.345;0.424;2251;695;2025;25.047;0
277.224;13.5;-237.839;0.835;0.345;0.424;2253;684;2020;25.25;0
279.952;13.5;-238.01;0.839;0.349;0.42;2259;678;2027;25.744;0
282.68;13.5;-238.181;0.843;0.357;0.416;2275;678;2048;25.926;0
285.408;13.5;-238.352;0.871;0.408;0.376;2389;711;2166;25.663;0
287.151;13.5;-240.38;0.682;0.176;0.545;1535;599;1438;27.565;0
286.973;13.5;-243.204;0.624;0.125;0.58;1413;546;1323;30.394;0
286.796;13.5;-246.029;0.6;0.102;0.596;1363;521;1310;33.223;0
286.619;13.5;-248.853;0.58;0.086;0.608;1321;504;1269;36.052;0
286.442;13.5;-251.677;0.573;0.075;0.612;1294;487;1253;38.881;0
286.265;13.5;-254.501;0.561;0.067;0.62;1271;463;1226;41.71;0
286.088;13.5;-257.326;0.549;0.059;0.627;1244;443;1213;44.539;0
284.105;13.5;-259.12;0.427;0.016;0.639;724;357;724;46.461;0
281.377;13.5;-258.949;0.349;0.02;0.616;599;331;599;46.606;0
278.65;13.5;-258.778;0.333;0.02;0.612;575;324;575;46.183;0
275.922;13.5;-258.607;0.329;0.02;0.612;566;321;566;45.91;0
273.194;13.5;-258.436;0.325;0.02;0.608;565;318;565;45.798;0
270.466;13.5;-258.265;0.325;0.02;0.608;562;321;562;45.85;0
267.739;13.5;-258.093;0.333;0.02;0.612;571;323;571;46.064;0
265.011;13.5;-257.922;0.416;0.016;0.635;704;336;704;46.438;0
262.283;13.5;-257.751;0.463;0.012;0.647;797;437;797;46.968;0
260.54;13.5;-255.723;0.667;0.161;0.553;1496;550;1391;44.92;0
260.717;13.5;-252.899;0.694;0.184;0.537;1555;568;1438;42.106;0
260.894;13.5;-250.075;0.639;0.137;0.573;1442;562;1319;39.294;0
261.071;13.5;-247.251;0.631;0.129;0.576;1427;552;1285;36.486;0
261.248;13.5;-244.426;0.635;0.133;0.573;1437;571;1287;33.68;0
261.425;13.5;-241.602;0.643;0.141;0.569;1453;601;1281;30.879;0
261.603;13.5;-238.778;0.702;0.192;0.533;1573;675;1391;28.084;0
613.703;13.5;-258.32;0.969;0.588;0.251;2907;825;2536;23.826;0
616.6;13.5;-258.499;0.965;0.584;0.255;2849;815;2473;24.116;0
619.496;13.5;-258.677;0.965;0.58;0.255;2825;804;2445;24.745;0
622.392;13.5;-258.856;0.965;0.584;0.255;2842;801;2449;25.004;0
625.289;13.5;-259.034;0.965;0.58;0.255;2832;800;2443;24.716;0
628.185;13.5;-259.212;0.965;0.58;0.255;2829;798;2441;24.051;0
631.082;13.5;-259.391;0.965;0.584;0.255;2841;799;2448;23.702;0
633.978;13.5;-259.569;0.965;0.584;0.255;2853;799;2486;23.262;0
636.875;13.5;-259.747;0.969;0.584;0.251;2868;799;2502;22.748;0
639.771;13.5;-259.926;0.969;0.584;0.251;2872;801;2512;22.469;0
642.668;13.5;-260.104;0.969;0.584;0.255;2863;800;2514;22.56;0
645.564;13.5;-260.282;0.969;0.584;0.255;2860;800;2508;23.016;0
648.461;13.5;-260.461;0.969;0.584;0.255;2863;804;2488;23.817;0
651.357;13.5;-260.639;0.969;0.584;0.255;2862;813;2472;24.792;0
654.254;13.5;-260.818;0.969;0.584;0.255;2864;819;2491;25.972;0
657.15;13.5;-260.996;0.969;0.588;0.251;2915;836;2489;27.107;0
660.046;13.5;-261.174;0.969;0.588;0.251;2889;840;2430;26.87;0
662.943;13.5;-261.353;0.969;0.588;0.251;2895;856;2429;26.944;0
664.412;13.5;-263.381;0.796;0.275;0.475;1882;706;1615;29.032;0
663.565;13.5;-265.949;0.745;0.231;0.506;1678;640;1477;31.551;0
662.719;13.5;-268.516;0.69;0.18;0.541;1548;629;1405;34.098;0
661.872;13.5;-271.084;0.639;0.137;0.569;1447;643;1331;36.667;0
661.026;13.5;-273.652;0.608;0.11;0.588;1381;669;1278;39.255;0
660.179;13.5;-276.219;0.588;0.09;0.604;1331;688;1248;41.857;0
659.333;13.5;-278.787;0.561;0.067;0.62;1270;708;1207;44.471;0
658.486;13.5;-281.354;0.541;0.051;0.631;1216;721;1170;46.692;0
657.639;13.5;-283.922;0.549;0.059;0.627;1244;791;1211;48.894;0
655.316;13.5;-285.463;0.596;0.098;0.596;1353;754;1353;49.734;0
652.526;13.5;-285.293;0.608;0.11;0.588;1379;718;1379;48.888;0
649.736;13.5;-285.123;0.639;0.137;0.573;1443;722;1443;48.189;0
646.946;13.5;-284.953;0.675;0.165;0.549;1512;732;1512;47.642;0
644.156;13.5;-284.783;0.773;0.255;0.49;1756;765;1756;47.253;0
642.365;13.5;-282.977;0.604;0.106;0.592;1371;553;1371;45.394;0
642.509;13.5;-280.595;0.549;0.059;0.627;1241;472;1241;43.017;0
642.654;13.5;-278.212;0.518;0.027;0.647;1128;421;1128;40.64;0
642.798;13.5;-275.829;0.498;0.012;0.659;972;355;972;38.264;0
641.884;13.5;-275.079;0.498;0.012;0.659;989;376;989;37.502;0
638.973;13.5;-274.902;0.506;0.02;0.655;1083;421;1083;37.434;0
636.062;13.5;-274.726;0.529;0.039;0.639;1175;454;1175;37.59;0
633.151;13.5;-274.549;0.549;0.055;0.627;1239;482;1239;37.969;0
630.24;13.5;-274.373;0.58;0.082;0.608;1316;505;1316;38.525;0
627.329;13.5;-274.196;0.612;0.11;0.588;1383;526;1383;38.901;0
624.418;13.5;-274.019;0.639;0.137;0.573;1442;564;1442;39.33;0
621.507;13.5;-273.843;0.655;0.149;0.561;1476;594;1476;39.848;0
618.596;13.5;-273.666;0.663;0.157;0.557;1494;610;1494;39.408;0
615.686;13.5;-273.49;0.682;0.173;0.545;1529;653;1529;39.015;0
612.775;13.5;-273.313;0.718;0.204;0.522;1608;716;1608;38.839;0
610.938;13.5;-271.295;0.765;0.247;0.494;1736;603;1622;36.94;0
611.113;13.5;-268.496;0.749;0.235;0.502;1688;526;1564;34.137;0
611.288;13.5;-265.697;0.765;0.247;0.49;1739;498;1589;31.334;0
611.463;13.5;-262.898;0.788;0.271;0.478;1835;475;1664;28.531;0
611.638;13.5;-260.099;0.8;0.278;0.471;1998;539;1786;25.729;0
541.692;13.5;-322.212;0.62;0.118;0.584;1402;446;1401;93.595;0
541.874;13.5;-319.258;0.635;0.133;0.573;1438;467;1437;90.636;0
542.057;13.5;-316.303;0.659;0.153;0.561;1482;495;1481;87.678;0
542.239;13.5;-313.349;0.682;0.173;0.545;1530;523;1526;84.719;0
542.421;13.5;-310.395;0.698;0.188;0.533;1569;552;1563;81.761;0
542.604;13.5;-307.441;0.718;0.208;0.522;1611;570;1602;78.802;0
542.786;13.5;-304.487;0.733;0.22;0.51;1651;586;1640;75.844;0
542.968;13.5;-301.533;0.749;0.235;0.502;1688;600;1677;72.886;0
543.151;13.5;-298.578;0.761;0.243;0.494;1723;612;1713;69.928;0
543.333;13.5;-295.624;0.769;0.251;0.49;1751;620;1737;66.97;0
543.515;13.5;-292.67;0.776;0.259;0.486;1780;623;1761;64.012;0
543.698;13.5;-289.716;0.784;0.263;0.478;1808;630;1785;61.055;0
543.88;13.5;-286.762;0.788;0.271;0.478;1833;633;1800;58.098;0
544.062;13.5;-283.808;0.792;0.275;0.475;1861;637;1821;55.141;0
544.245;13.5;-280.854;0.796;0.275;0.475;1882;638;1832;52.184;0
544.427;13.5;-277.899;0.8;0.278;0.471;1906;642;1846;49.228;0
544.609;13.5;-274.945;0.8;0.278;0.471;1920;647;1836;46.272;0
544.792;13.5;-271.991;0.8;0.278;0.471;1947;650;1835;43.317;0
544.974;13.5;-269.037;0.8;0.278;0.471;1992;654;1853;40.362;0
545.156;13.5;-266.083;0.804;0.286;0.467;2049;669;1874;37.409;0
545.339;13.5;-263.129;0.824;0.325;0.439;2196;715;1949;34.456;0
547.207;13.5;-261.261;0.722;0.208;0.522;1615;516;1321;32.417;0
549.701;13.5;-261.417;0.553;0.059;0.627;1245;415;1055;32.488;0
550.498;13.5;-260.794;0.553;0.063;0.624;1253;409;1070;31.88;0
550.658;13.5;-258.463;0.663;0.157;0.557;1495;482;1273;29.557;0
550.819;13.5;-256.132;0.765;0.247;0.49;1738;562;1432;27.238;0
552.886;13.5;-254.592;0.922;0.502;0.314;2577;775;2102;25.886;0
555.802;13.5;-254.772;0.894;0.455;0.345;2481;747;2035;26.225;0
558.718;13.5;-254.952;0.894;0.451;0.349;2472;745;2048;26.02;0
561.634;13.5;-255.132;0.898;0.455;0.345;2483;744;2094;26.06;0
564.55;13.5;-255.311;0.906;0.475;0.333;2518;747;2120;26.242;0
567.466;13.5;-255.491;0.91;0.482;0.325;2538;751;2145;26.294;0
570.382;13.5;-255.671;0.918;0.494;0.318;2563;756;2188;26.015;0
573.298;13.5;-255.851;0.925;0.506;0.31;2588;761;2173;25.936;0
576.214;13.5;-256.031;0.933;0.525;0.294;2638;766;2216;26.112;0
579.129;13.5;-256.211;0.937;0.529;0.294;2643;772;2236;26.029;0
582.045;13.5;-256.39;0.937;0.533;0.29;2651;776;2232;26.089;0
584.961;13.5;-256.57;0.941;0.537;0.286;2668;781;2264;26.008;0
587.877;13.5;-256.75;0.945;0.545;0.282;2683;787;2292;25.9;0
590.793;13.5;-256.93;0.949;0.553;0.275;2716;792;2280;25.626;0
593.709;13.5;-257.11;0.957;0.565;0.267;2752;806;2325;25.537;0
596.625;13.5;-257.29;0.941;0.541;0.286;2676;819;2289;25.517;0
598.469;13.5;-259.305;0.796;0.275;0.475;1875;523;1588;27.115;0
598.305;13.5;-262.1;0.757;0.239;0.498;1710;448;1477;29.9;0
598.141;13.5;-264.895;0.741;0.227;0.506;1668;463;1460;32.688;0
597.977;13.5;-267.689;0.71;0.2;0.525;1595;501;1427;35.478;0
597.813;13.5;-270.484;0.769;0.251;0.49;1743;595;1596;38.269;0
595.745;13.5;-272.252;0.694;0.184;0.537;1558;859;1558;40.336;0
592.841;13.5;-272.054;0.667;0.161;0.553;1501;827;1501;40.497;0
589.937;13.5;-271.856;0.651;0.145;0.565;1464;822;1464;40.542;0
587.032;13.5;-271.658;0.635;0.133;0.573;1438;808;1438;40.718;0
584.128;13.5;-271.46;0.624;0.125;0.58;1414;785;1414;40.892;0
581.223;13.5;-271.262;0.592;0.094;0.6;1345;726;1345;40.951;0
578.319;13.5;-271.065;0.561;0.067;0.62;1269;688;1269;40.887;0
575.415;13.5;-270.867;0.545;0.055;0.631;1227;647;1227;40.894;0
572.51;13.5;-270.669;0.541;0.051;0.631;1216;615;1216;40.756;0
569.606;13.5;-270.471;0.533;0.043;0.639;1189;561;1189;40.807;0
566.702;13.5;-270.273;0.514;0.024;0.651;1111;465;1111;40.961;0
565.689;13.5;-271.188;0.518;0.027;0.647;1133;448;1133;42.03;0
565.503;13.5;-274.152;0.553;0.059;0.624;1248;515;1248;44.981;0
565.317;13.5;-277.115;0.612;0.114;0.588;1390;597;1390;47.934;0
563.684;13.5;-278.996;0.627;0.125;0.576;1420;587;1420;49.93;0
561.671;13.5;-278.857;0.549;0.055;0.627;1238;467;1238;49.762;0
559.658;13.5;-278.719;0.502;0.016;0.655;1057;405;1057;49.654;0
559.094;13.5;-279.657;0.537;0.047;0.635;1209;419;1209;50.613;0
558.912;13.5;-282.606;0.576;0.078;0.612;1304;512;1304;53.567;0
558.73;13.5;-285.555;0.58;0.082;0.608;1315;550;1315;56.52;0
558.548;13.5;-288.505;0.58;0.082;0.608;1314;566;1314;59.473;0
558.366;13.5;-291.454;0.58;0.086;0.608;1318;583;1318;62.427;0
558.184;13.5;-294.403;0.584;0.09;0.604;1328;581;1328;65.381;0
558.002;13.5;-297.352;0.58;0.086;0.608;1320;583;1320;68.334;0
557.82;13.5;-300.302;0.573;0.078;0.612;1302;573;1302;71.288;0
557.638;13.5;-303.251;0.573;0.078;0.612;1302;563;1302;74.242;0
557.456;13.5;-306.2;0.565;0.071;0.616;1282;534;1282;77.196;0
557.274;13.5;-309.149;0.565;0.071;0.616;1280;504;1280;80.15;0
558.048;13.5;-310.176;0.58;0.086;0.608;1319;516;1319;81.14;0
560.714;13.5;-310.341;0.678;0.173;0.545;1528;596;1528;81.238;0
563.38;13.5;-310.505;0.729;0.22;0.514;1642;642;1642;81.268;0
566.047;13.5;-310.67;0.745;0.231;0.506;1679;672;1679;81.147;0
568.713;13.5;-310.835;0.757;0.243;0.498;1713;699;1713;81.069;0
571.379;13.5;-310.999;0.773;0.255;0.486;1758;722;1758;81.077;0
574.045;13.5;-311.164;0.784;0.263;0.482;1800;741;1800;81.173;0
576.712;13.5;-311.328;0.792;0.275;0.475;1863;769;1863;81.158;0
579.378;13.5;-311.493;0.8;0.278;0.471;1939;799;1938;81.165;0
581.093;13.5;-313.502;0.573;0.078;0.612;1299;507;1298;82.978;0
580.921;13.5;-316.297;0.502;0.016;0.655;1049;408;1048;85.768;0
580.748;13.5;-319.092;0.498;0.012;0.659;954;365;954;88.558;0
580.576;13.5;-321.886;0.467;0.012;0.651;810;311;810;91.349;0
580.403;13.5;-324.681;0.451;0.016;0.643;769;319;769;94.141;0
578.336;13.5;-326.457;0.439;0.016;0.643;749;431;749;96.158;0
575.435;13.5;-326.278;0.431;0.016;0.639;729;411;729;96.157;0
572.534;13.5;-326.099;0.42;0.016;0.635;712;395;712;96.129;0
569.632;13.5;-325.92;0.416;0.016;0.635;705;385;705;96.062;0
566.731;13.5;-325.741;0.412;0.016;0.635;695;378;695;96.083;0
563.829;13.5;-325.562;0.408;0.016;0.631;686;369;686;96.186;0
560.928;13.5;-325.383;0.408;0.016;0.631;687;359;687;96.275;0
558.027;13.5;-325.204;0.408;0.016;0.631;687;350;687;96.154;0
555.125;13.5;-325.024;0.412;0.016;0.635;693;342;693;96.122;0
552.224;13.5;-324.845;0.416;0.016;0.635;699;334;699;95.936;0
549.323;13.5;-324.666;0.42;0.016;0.635;709;327;709;95.719;0
546.421;13.5;-324.487;0.431;0.016;0.639;733;326;733;95.591;0
543.52;13.5;-324.308;0.478;0.012;0.655;851;347;851;95.551;0
597.515;13.5;-190.804;0.757;0.239;0.498;1707;770;1548;28.261;0
597.691;13.5;-187.909;0.686;0.176;0.541;1539;713;1429;31.124;0
597.867;13.5;-185.014;0.655;0.149;0.561;1474;686;1376;33.969;0
598.044;13.5;-182.119;0.608;0.11;0.592;1376;667;1295;36.791;0
598.22;13.5;-179.224;0.573;0.075;0.612;1295;642;1218;39.624;0
598.396;13.5;-176.329;0.549;0.059;0.627;1243;618;1172;42.466;0
598.573;13.5;-173.434;0.529;0.039;0.639;1177;595;1115;45.315;0
598.749;13.5;-170.539;0.514;0.027;0.647;1121;577;1063;48.171;0
598.925;13.5;-167.644;0.502;0.016;0.655;1059;560;997;51.031;0
599.102;13.5;-164.748;0.498;0.012;0.659;1004;556;954;53.896;0
599.278;13.5;-161.853;0.498;0.012;0.659;943;546;902;56.765;0
599.454;13.5;-158.958;0.49;0.012;0.655;888;535;860;59.636;0
599.63;13.5;-156.063;0.467;0.012;0.651;808;523;803;62.51;0
599.807;13.5;-153.168;0.459;0.012;0.647;786;511;783;65.387;0
599.983;13.5;-150.273;0.451;0.016;0.643;769;498;766;68.265;0
600.159;13.5;-147.378;0.443;0.016;0.643;753;487;750;71.146;0
600.336;13.5;-144.483;0.435;0.016;0.643;742;468;740;74.028;0
600.512;13.5;-141.588;0.439;0.016;0.643;744;454;741;76.911;0
600.688;13.5;-138.693;0.451;0.016;0.647;775;437;771;79.796;0
602.704;13.5;-136.863;0.247;0.024;0.588;455;232;455;81.575;0
605.498;13.5;-137.035;0.243;0.024;0.584;446;226;446;81.418;0
608.293;13.5;-137.208;0.243;0.024;0.584;450;231;450;81.356;0
611.088;13.5;-137.38;0.243;0.024;0.584;450;231;450;81.392;0
613.882;13.5;-137.553;0.271;0.024;0.592;488;272;488;81.523;0
615.664;13.5;-139.535;0.463;0.012;0.647;797;439;797;79.806;0
615.495;13.5;-142.267;0.447;0.016;0.643;763;445;763;77.082;0
615.327;13.5;-144.999;0.451;0.016;0.643;768;468;768;74.358;0
615.158;13.5;-147.731;0.451;0.016;0.647;775;489;775;71.636;0
614.989;13.5;-150.463;0.459;0.012;0.647;794;515;792;68.914;0
614.821;13.5;-153.194;0.478;0.012;0.651;842;531;839;66.194;0
614.652;13.5;-155.926;0.475;0.012;0.651;832;545;829;63.476;0
614.483;13.5;-158.658;0.467;0.012;0.651;811;539;808;60.759;0
614.315;13.5;-161.39;0.455;0.012;0.647;782;533;780;58.044;0
614.146;13.5;-164.122;0.42;0.016;0.635;712;495;712;55.331;0
613.978;13.5;-166.854;0.365;0.016;0.62;617;409;617;52.621;0
614.922;13.5;-167.783;0.333;0.02;0.612;572;411;572;51.908;0
617.916;13.5;-167.968;0.42;0.016;0.635;711;529;711;52.414;0
619.797;13.5;-169.962;0.478;0.012;0.655;849;658;843;50.363;0
619.628;13.5;-172.707;0.443;0.016;0.643;758;592;758;47.621;0
619.458;13.5;-175.452;0.427;0.016;0.639;723;552;723;44.881;0
619.289;13.5;-178.197;0.4;0.016;0.631;677;501;677;42.141;0
619.872;13.5;-179.109;0.392;0.016;0.627;661;492;661;41.217;0
622.145;13.5;-179.249;0.416;0.016;0.635;705;569;705;41.108;0
624.418;13.5;-179.39;0.431;0.016;0.639;729;617;729;41.126;0
626.69;13.5;-179.53;0.439;0.016;0.643;747;663;747;41.015;0
628.209;13.5;-181.527;0.573;0.078;0.612;1297;616;1214;38.749;0
628.036;13.5;-184.322;0.592;0.094;0.6;1344;568;1235;36.049;0
627.864;13.5;-187.117;0.643;0.141;0.569;1454;539;1302;33.366;0
627.691;13.5;-189.911;0.698;0.188;0.533;1565;542;1377;30.703;0
627.519;13.5;-192.706;0.776;0.255;0.486;1768;588;1530;28.068;0
625.452;13.5;-194.482;0.957;0.565;0.267;2749;814;2389;26.325;0
622.551;13.5;-194.303;0.953;0.557;0.271;2728;805;2388;26.107;0
619.651;13.5;-194.124;0.949;0.549;0.278;2699;801;2369;26.212;0
616.75;13.5;-193.945;0.945;0.549;0.278;2694;796;2360;26.635;0
613.849;13.5;-193.766;0.941;0.537;0.286;2668;794;2341;26.602;0
610.948;13.5;-193.587;0.937;0.529;0.29;2650;792;2315;25.973;0
608.048;13.5;-193.408;0.933;0.525;0.298;2632;790;2299;25.489;0
605.147;13.5;-193.229;0.929;0.514;0.302;2610;795;2301;25.33;0
602.246;13.5;-193.05;0.925;0.506;0.31;2591;794;2290;25.504;0
599.345;13.5;-192.871;0.922;0.506;0.31;2587;804;2278;26.004;0
685.807;16.5;-302.271;0.58;0.082;0.608;1314;543;1314;67.014;0
683.147;16.5;-301.396;0.522;0.035;0.643;1159;528;1159;66.246;0
680.487;16.5;-300.521;0.529;0.039;0.639;1185;528;1185;65.583;0
677.827;16.5;-299.646;0.561;0.067;0.62;1271;562;1271;64.564;0
675.168;16.5;-298.772;0.624;0.122;0.58;1411;683;1411;63.651;0
673.957;16.5;-296.372;0.765;0.247;0.494;1734;857;1691;61.273;0
674.833;16.5;-293.712;0.769;0.251;0.49;1746;835;1679;58.596;0
675.708;16.5;-291.051;0.769;0.251;0.49;1746;825;1666;55.932;0
676.584;16.5;-288.39;0.776;0.255;0.486;1770;799;1676;53.282;0
677.46;16.5;-285.729;0.78;0.263;0.482;1793;778;1689;50.648;0
678.336;16.5;-283.068;0.757;0.243;0.498;1713;684;1601;48.033;0
679.211;16.5;-280.408;0.769;0.251;0.49;1747;666;1615;45.44;0
680.087;16.5;-277.747;0.773;0.255;0.486;1765;639;1602;42.873;0
680.963;16.5;-275.086;0.788;0.271;0.478;1835;647;1635;40.314;0
681.839;16.5;-272.425;0.796;0.275;0.471;1891;660;1658;37.558;0
682.714;16.5;-269.764;0.8;0.278;0.471;1934;657;1667;34.809;0
683.59;16.5;-267.103;0.8;0.282;0.467;2017;708;1718;32.07;0
684.466;16.5;-264.443;0.835;0.341;0.427;2240;802;1875;29.342;0
686.862;16.5;-262.859;0.933;0.525;0.298;2633;823;2154;27.645;0
689.767;16.5;-263.038;0.906;0.475;0.329;2524;770;2052;27.781;0
692.673;16.5;-263.218;0.906;0.471;0.333;2515;764;2045;27.901;0
695.578;16.5;-263.397;0.894;0.447;0.349;2469;737;2013;27.631;0
698.483;16.5;-263.576;0.89;0.447;0.353;2462;729;2027;27.565;0
701.388;16.5;-263.756;0.894;0.451;0.349;2471;726;2021;27.725;0
704.294;16.5;-263.935;0.894;0.455;0.345;2481;714;2027;27.237;0
707.199;16.5;-264.114;0.902;0.467;0.337;2505;713;2056;27.044;0
710.104;16.5;-264.294;0.91;0.482;0.325;2537;718;2082;27.164;0
713.009;16.5;-264.473;0.925;0.506;0.31;2588;725;2121;27.591;0
714.844;16.5;-266.496;0.8;0.278;0.471;1995;546;1717;29.887;0
714.67;16.5;-269.303;0.78;0.263;0.482;1798;496;1545;32.618;0
714.497;16.5;-272.11;0.745;0.227;0.506;1675;505;1460;35.362;0
714.324;16.5;-274.918;0.702;0.192;0.533;1572;595;1401;38.116;0
714.15;16.5;-277.725;0.722;0.208;0.522;1616;717;1476;40.878;0
712.228;16.5;-279.518;0.561;0.067;0.62;1265;792;1265;42.478;0
709.615;16.5;-279.359;0.533;0.043;0.635;1196;724;1196;42.214;0
707.002;16.5;-279.201;0.525;0.035;0.643;1162;660;1162;42.112;0
704.389;16.5;-279.043;0.514;0.024;0.651;1114;585;1114;42.172;0
701.776;16.5;-278.884;0.506;0.02;0.655;1085;522;1085;42.394;0
699.163;16.5;-278.726;0.502;0.016;0.655;1041;469;1041;42.629;0
696.551;16.5;-278.568;0.498;0.012;0.659;1001;424;1001;42.609;0
695.306;16.5;-279.493;0.498;0.012;0.659;1004;417;1004;43.643;0
694.419;16.5;-282.187;0.502;0.016;0.655;1043;454;1043;46.405;0
693.532;16.5;-284.88;0.502;0.016;0.655;1045;479;1045;49.169;0
692.645;16.5;-287.574;0.502;0.016;0.655;1051;493;1051;51.938;0
691.759;16.5;-290.268;0.502;0.016;0.659;1032;495;1032;54.714;0
690.872;16.5;-292.962;0.498;0.012;0.659;1024;500;1024;57.496;0
689.985;16.5;-295.656;0.502;0.016;0.659;1036;527;1036;60.283;0
689.098;16.5;-298.349;0.502;0.016;0.655;1044;526;1044;63.074;0
688.211;16.5;-301.043;0.506;0.02;0.655;1086;538;1086;65.784;0
787.346;16.5;-282.087;0.804;0.286;0.467;2042;629;1596;39.801;0
789.779;16.5;-280.747;0.8;0.278;0.471;1988;624;1534;38.54;0
792.212;16.5;-279.406;0.8;0.282;0.471;2004;652;1535;37.442;0
794.645;16.5;-278.065;0.804;0.282;0.467;2027;667;1543;36.523;0
797.078;16.5;-276.725;0.8;0.282;0.471;2005;656;1508;35.797;0
799.51;16.5;-275.384;0.8;0.282;0.471;2003;662;1483;34.39;0
801.943;16.5;-274.043;0.804;0.282;0.467;2032;676;1484;32.304;0
804.376;16.5;-272.703;0.808;0.29;0.463;2068;670;1482;30.039;0
806.809;16.5;-271.362;0.855;0.376;0.4;2323;723;1666;27.856;0
809.419;16.5;-272.185;0.918;0.498;0.318;2567;837;1952;27.711;0
810.849;16.5;-274.779;0.867;0.404;0.38;2378;782;1823;29.814;0
812.278;16.5;-277.373;0.867;0.4;0.384;2370;777;1848;32.054;0
813.707;16.5;-279.966;0.871;0.408;0.38;2384;774;1871;34.402;0
815.137;16.5;-282.56;0.867;0.396;0.384;2366;774;1863;36.826;0
816.566;16.5;-285.154;0.867;0.404;0.38;2378;774;1889;39.323;0
817.995;16.5;-287.748;0.871;0.408;0.376;2388;784;1932;41.881;0
819.425;16.5;-290.342;0.867;0.4;0.384;2368;784;1933;44.299;0
820.854;16.5;-292.935;0.867;0.4;0.384;2371;801;1959;46.74;0
822.284;16.5;-295.529;0.863;0.392;0.388;2357;817;1971;49.238;0
823.713;16.5;-298.123;0.855;0.38;0.4;2330;815;1952;51.731;0
825.142;16.5;-300.717;0.847;0.369;0.408;2303;821;1957;54.105;0
826.572;16.5;-303.31;0.835;0.345;0.424;2253;827;1935;56.531;0
828.001;16.5;-305.904;0.827;0.329;0.435;2211;842;1949;58.971;0
829.43;16.5;-308.498;0.824;0.322;0.439;2193;850;1976;61.446;0
830.86;16.5;-311.092;0.82;0.318;0.443;2171;857;1991;63.962;0
832.289;16.5;-313.685;0.816;0.31;0.447;2150;864;2000;66.36;0
833.718;16.5;-316.279;0.816;0.31;0.447;2150;874;2021;68.72;0
835.148;16.5;-318.873;0.812;0.298;0.455;2112;876;2007;71.125;0
836.577;16.5;-321.467;0.808;0.29;0.463;2076;876;2010;73.571;0
838.007;16.5;-324.06;0.804;0.29;0.463;2067;876;2020;76.054;0
839.436;16.5;-326.654;0.804;0.286;0.463;2058;871;2036;78.57;0
840.865;16.5;-329.248;0.804;0.286;0.467;2038;859;2027;81.115;0
842.295;16.5;-331.842;0.804;0.282;0.467;2030;842;2024;83.689;0
843.724;16.5;-334.436;0.804;0.282;0.467;2033;833;2029;86.287;0
845.153;16.5;-337.029;0.804;0.282;0.467;2028;825;2027;88.818;0
844.455;16.5;-339.676;0.514;0.027;0.647;1123;534;1123;91.53;0
842.022;16.5;-341.016;0.498;0.012;0.659;1006;461;1006;92.863;0
839.589;16.5;-342.357;0.498;0.012;0.659;983;422;983;94.253;0
837.157;16.5;-343.698;0.498;0.012;0.659;963;401;963;95.703;0
834.724;16.5;-345.038;0.498;0.012;0.659;947;389;947;97.211;0
832.291;16.5;-346.379;0.494;0.012;0.659;928;374;928;98.774;0
829.858;16.5;-347.72;0.494;0.012;0.659;912;359;912;100.389;0
